ply
format ascii 1.0
element face 0
property list uchar int vertex_indices
element vertex 637
property float x
property float y
property float z
property uchar diffuse_red
property uchar diffuse_green
property uchar diffuse_blue
end_header
-4.355387e-001 -3.418483e-001 -2.614384e+000 100 179 115
-1.372963e-001 -7.940044e-001 -2.659195e+000 227 230 74
-4.501474e-001 -4.714371e-001 -2.652969e+000 31 27 24
-4.078331e-001 -5.219954e-001 -2.681313e+000 100 164 101
-1.586138e-001 -3.095130e-001 -2.551398e+000 207 206 203
-1.213525e-001 -3.028559e-001 -2.566978e+000 213 217 214
-1.002849e-001 -2.548607e-001 -2.557509e+000 113 67 40
6.374410e-001 3.203756e-001 -2.819974e+000 211 227 226
-1.183691e-001 -4.141869e-001 -2.604119e+000 207 210 203
-4.103183e-001 -2.566150e-001 -2.609618e+000 54 78 64
-6.806321e-001 -2.344088e-001 -2.543913e+000 103 173 181
-6.856337e-001 -1.910580e-001 -2.526693e+000 101 169 182
-4.619358e-001 -5.622492e-001 -2.664806e+000 88 154 97
-1.362878e-001 -4.591451e-001 -2.612599e+000 31 28 28
-1.650769e-003 -4.306722e-001 -2.644628e+000 27 24 29
-8.916846e-002 -4.132020e-001 -2.612408e+000 25 24 24
-4.645753e-001 -3.318309e-001 -2.598000e+000 54 99 66
-1.214746e-001 -3.637311e-001 -2.585347e+000 209 211 208
-6.312734e-002 -3.579777e-001 -2.601844e+000 207 208 199
8.507805e-001 1.660834e-002 -3.046370e+000 203 212 205
2.116302e+000 -1.239447e+000 -4.928919e+000 132 122 127
-4.120412e-001 -9.508207e-001 -2.536478e+000 32 35 40
1.008871e-001 -5.841673e-001 -2.727001e+000 56 9 2
5.249236e-002 -5.794426e-001 -2.707670e+000 166 126 127
-6.921138e-001 -4.693539e-001 -2.617064e+000 128 171 174
-5.829711e-002 -4.966336e-001 -2.647898e+000 209 212 205
1.538544e-002 -4.860697e-001 -2.667976e+000 210 211 208
-1.109478e-001 -4.460007e-001 -2.615293e+000 19 19 24
-1.109478e-001 -4.460007e-001 -2.615293e+000 19 19 24
9.114824e-002 -4.211404e-001 -2.672067e+000 39 21 22
3.535623e-002 -3.989594e-001 -2.647382e+000 33 29 32
3.532422e-002 -3.990712e-001 -2.647796e+000 33 29 32
-1.419767e-001 -3.896968e-001 -2.588099e+000 34 34 36
2.002086e-002 -3.254387e-001 -2.619102e+000 244 44 38
8.035629e-002 -3.027623e-001 -2.631113e+000 64 7 1
2.107042e-001 3.870867e-001 -2.680358e+000 182 211 220
-1.319929e-001 -6.155630e-001 -2.665156e+000 31 21 0
-1.319018e-001 -6.157233e-001 -2.665803e+000 31 21 0
-6.770676e-001 -4.826570e-001 -2.628380e+000 147 33 69
-1.266199e-001 -4.399337e-001 -2.608904e+000 210 209 202
6.337925e-002 -4.225031e-001 -2.663984e+000 25 21 25
6.354815e-002 -4.223964e-001 -2.663694e+000 25 21 25
-1.285994e-001 -3.977945e-001 -2.594084e+000 213 215 208
5.065527e-002 -3.737857e-001 -2.644218e+000 223 223 222
7.512779e-002 -3.705091e-001 -2.651550e+000 220 225 217
1.982933e-003 -3.519068e-001 -2.620916e+000 238 38 34
2.827995e-002 -3.491295e-001 -2.628985e+000 237 39 35
-4.528298e-001 -2.237522e-001 -2.572035e+000 68 89 79
1.929637e+000 -1.408930e+000 -4.736303e+000 140 138 144
-1.236872e-002 -4.501390e-001 -2.645743e+000 217 218 216
-3.545634e-001 -1.858154e-001 -2.606360e+000 204 216 208
9.766678e-001 2.004320e-001 -3.076331e+000 62 54 55
-4.066520e-001 -5.215124e-001 -2.679035e+000 100 164 101
-5.842868e-002 -4.100216e-001 -2.619641e+000 144 144 142
-4.845689e-001 -3.166683e-001 -2.583212e+000 77 158 113
-1.620063e-001 -4.816940e-001 -2.618469e+000 203 202 195
9.722349e-001 2.017746e-001 -3.072131e+000 62 54 55
1.837496e+000 -8.443656e-001 -5.327477e+000 128 117 120
1.789513e+000 -7.182557e-001 -5.461984e+000 140 130 133
1.789513e+000 -7.182557e-001 -5.461984e+000 140 130 133
2.363576e-001 4.117771e-001 -2.676837e+000 217 247 254
1.799483e+000 -1.039661e+000 -5.134275e+000 80 74 79
1.743692e+000 -7.367374e-001 -5.437825e+000 92 77 80
-3.025889e-001 -8.544422e-001 -2.597108e+000 28 79 153
-3.025889e-001 -8.544422e-001 -2.597108e+000 28 79 153
3.937645e-002 -8.104585e-001 -2.644235e+000 212 233 126
2.354009e-001 4.304461e-001 -2.679076e+000 21 50 52
-7.252661e-001 -1.904674e-001 -2.513134e+000 138 147 165
-1.152581e-002 -4.909094e-001 -2.662488e+000 218 220 218
-6.991625e-001 -1.127934e-002 -2.461250e+000 181 136 130
8.952823e-001 7.218780e-001 -2.966885e+000 208 217 216
-2.856501e-002 -8.077302e-001 -2.663626e+000 234 237 74
-1.401429e-001 -7.958186e-001 -2.663018e+000 227 230 74
-9.759985e-002 -2.542223e-001 -2.563227e+000 113 67 40
6.349464e-001 -3.385632e-001 -3.367843e+000 122 123 123
-1.631297e-001 -3.094885e-001 -2.548777e+000 207 206 203
-6.198541e-001 -1.723862e-001 -2.556210e+000 128 158 170
5.857550e-001 2.135020e-002 -3.012315e+000 67 116 50
-1.645861e-001 -9.102429e-001 -2.596355e+000 87 94 94
-1.429281e-001 2.425745e-001 -2.682372e+000 64 190 226
-4.637905e-001 -6.185762e-001 -2.680391e+000 30 58 39
-8.926385e-002 2.543288e-001 -2.701009e+000 230 110 152
-1.613371e-001 -9.585748e-001 -2.547706e+000 24 60 49
-2.011855e-001 -8.623991e-001 -2.654395e+000 25 70 43
-3.127701e-001 -8.415146e-001 -2.601349e+000 193 211 214
1.796304e+000 -1.121483e+000 -5.049989e+000 131 128 132
5.546772e-001 -5.889212e-001 -2.878203e+000 37 62 16
-4.647506e-001 -3.326953e-001 -2.601116e+000 54 99 66
-1.322293e-001 -2.746588e-001 -2.552628e+000 114 64 37
-1.644193e-001 -1.605787e-001 -2.690464e+000 201 200 180
6.424525e-003 -2.906070e-002 -2.763431e+000 41 15 18
1.998748e+000 -8.613223e-002 -6.096010e+000 96 94 99
6.009022e-001 3.089000e-001 -2.843056e+000 115 128 103
-1.487311e-001 3.573585e-001 -2.773358e+000 215 242 198
4.325657e-001 4.696977e-001 -2.731795e+000 41 53 63
-1.826438e-001 -9.268648e-001 -2.573943e+000 40 42 44
1.853732e+000 -1.521153e+000 -4.629452e+000 94 75 73
-1.690528e-001 -8.621589e-001 -2.646342e+000 28 61 38
1.882692e+000 -1.447300e+000 -4.703641e+000 148 132 134
2.062356e+000 -1.406157e+000 -4.754027e+000 81 63 71
1.881666e+000 -1.373192e+000 -4.786000e+000 137 130 139
1.679889e+000 -1.353924e+000 -4.795083e+000 150 138 143
1.994716e+000 -1.322381e+000 -4.837389e+000 128 119 123
1.821689e+000 -1.171200e+000 -4.999092e+000 99 89 87
2.065266e+000 -8.343494e-001 -5.358046e+000 83 65 62
2.024417e+000 -7.322129e-001 -5.457971e+000 86 74 77
2.024417e+000 -7.322129e-001 -5.457971e+000 86 74 77
-4.113381e-002 -3.340729e-001 -2.600223e+000 209 212 208
1.915009e+000 -6.481447e-001 -5.546051e+000 86 71 71
1.915009e+000 -6.481447e-001 -5.546051e+000 86 71 71
1.938342e+000 -3.135375e-001 -5.845761e+000 110 110 111
8.133475e-001 -8.437574e-002 -3.116623e+000 100 101 90
6.538049e-001 2.302228e-001 -2.836611e+000 204 224 224
1.727674e+000 -1.567899e+000 -4.572067e+000 96 80 85
-4.004970e-001 -9.204847e-001 -2.574414e+000 34 71 51
1.616852e+000 -1.503112e+000 -4.628507e+000 99 83 85
1.707228e+000 -1.470970e+000 -4.658626e+000 90 79 81
-2.832721e-001 -8.543250e-001 -2.590038e+000 20 78 160
6.287804e-002 -8.104405e-001 -2.640762e+000 216 238 122
3.986344e-002 -8.084467e-001 -2.641073e+000 212 233 126
2.119214e+000 -1.403572e+000 -4.772257e+000 81 72 77
-6.684091e-001 -5.955124e-001 -2.671200e+000 113 35 38
1.661746e+000 -9.762214e-001 -5.189380e+000 127 113 115
2.088954e+000 -9.807238e-001 -5.197240e+000 85 73 75
1.783770e+000 -9.071812e-001 -5.258242e+000 128 119 126
1.917336e+000 -8.590764e-001 -5.318970e+000 80 57 57
-7.465175e-002 -4.320193e-001 -2.622960e+000 213 213 213
1.827030e+000 -8.205875e-001 -5.365284e+000 131 119 122
-2.716527e-001 -7.311051e-002 -2.693746e+000 134 94 119
1.988314e+000 -5.611922e-003 -6.180760e+000 80 76 77
2.264489e+000 1.932271e-001 -6.394784e+000 49 42 43
2.354952e-001 4.303821e-001 -2.679534e+000 21 50 52
-6.770445e-002 -7.251374e-001 -2.677580e+000 221 198 54
-2.700820e-001 -6.778352e-001 -2.627137e+000 23 23 16
-5.118965e-001 2.458857e-001 -2.528841e+000 220 225 227
-6.289433e-001 -5.535813e-001 -2.650456e+000 183 165 141
1.015241e+000 4.723114e-001 -3.029316e+000 21 21 23
-8.015878e-002 -5.597307e-001 -2.660367e+000 17 17 15
6.682604e-001 1.730099e-001 -2.829566e+000 201 219 218
-6.094529e-001 -6.999405e-001 -2.728587e+000 71 148 161
-4.555052e-001 -6.561363e-001 -2.696958e+000 97 164 100
-4.545869e-001 -6.555627e-001 -2.700706e+000 97 164 100
2.705536e-001 -6.282251e-001 -2.837651e+000 116 181 93
6.042613e-001 -6.232657e-001 -2.861784e+000 113 183 95
-3.460391e-001 -2.686366e-001 -2.618124e+000 15 15 14
9.110699e-002 6.315623e-001 -2.707664e+000 117 123 122
2.513981e-001 -8.395258e-001 -2.666742e+000 242 252 94
2.783201e-001 -7.861024e-001 -2.657560e+000 25 23 18
-4.239658e-001 -3.839539e-001 -2.631353e+000 90 175 120
5.615306e-001 4.305097e-001 -2.818694e+000 197 217 209
-9.023828e-002 5.905601e-001 -2.696262e+000 147 143 137
-6.756038e-001 -8.392652e-001 -2.810841e+000 114 121 128
6.000693e-001 -7.271426e-001 -2.770565e+000 14 18 12
-4.770695e-001 -3.895443e-001 -2.608426e+000 36 38 33
6.457254e-001 -2.859925e-002 -2.977876e+000 109 179 90
-7.000929e-001 5.706925e-001 -2.562989e+000 157 151 150
-2.421184e-001 -8.244653e-001 -2.707400e+000 111 112 107
6.220609e-001 -8.134119e-001 -2.797990e+000 21 17 14
-4.264906e-001 -7.007955e-001 -2.721591e+000 30 41 26
-1.753966e-002 -4.752866e-001 -2.651879e+000 126 127 124
6.528845e-002 -4.634898e-001 -2.675904e+000 217 215 212
-4.043510e-001 -2.269956e-001 -2.598351e+000 150 166 158
7.823359e-001 -6.179161e-002 -3.106964e+000 55 41 28
8.118250e-001 -2.798243e-002 -3.084154e+000 176 181 174
5.372632e-001 9.552915e-002 -3.019682e+000 81 137 68
-2.632584e-001 4.214406e-001 -2.651041e+000 61 49 40
-2.576664e-001 5.082043e-001 -2.660700e+000 198 200 194
-2.505564e-001 5.521608e-001 -2.660244e+000 151 150 145
-1.348210e-001 -9.702586e-001 -2.545752e+000 184 204 207
-1.351253e-001 -8.902642e-001 -2.617004e+000 41 48 47
9.270730e-001 -8.573505e-001 -2.760904e+000 60 32 14
-1.982666e-001 -8.281936e-001 -2.691856e+000 34 28 16
-4.779951e-001 -7.233182e-001 -2.707710e+000 95 154 92
-1.572443e-001 -5.310175e-001 -2.631473e+000 207 181 39
-1.603736e-001 -4.812345e-001 -2.613159e+000 203 202 195
-1.642798e-001 -3.773617e-001 -2.577946e+000 205 206 201
-1.404083e-001 -3.419638e-001 -2.571908e+000 128 126 128
3.650143e-002 -3.066320e-001 -2.619028e+000 94 1 0
-4.156071e-001 -2.594976e-001 -2.598641e+000 57 78 65
-6.347272e-001 2.208558e-002 -2.486656e+000 181 206 156
-8.396171e-001 2.158696e-001 -2.566403e+000 113 92 92
5.332718e-001 5.252764e-001 -2.753392e+000 91 100 79
9.512766e-001 6.858582e-001 -2.971951e+000 198 201 205
-1.401351e-001 -4.984253e-001 -2.622284e+000 53 12 6
-5.412775e-002 -4.407375e-001 -2.631000e+000 27 29 33
-8.922632e-002 -4.130880e-001 -2.612603e+000 25 24 24
1.488711e-002 -4.125997e-001 -2.642379e+000 210 213 210
-7.915381e-002 -3.853274e-001 -2.605767e+000 25 26 24
-4.013362e-002 -3.799435e-001 -2.615971e+000 29 29 27
-4.034225e-002 -3.793292e-001 -2.616505e+000 29 29 27
-2.973030e-002 -3.326630e-001 -2.606135e+000 215 214 213
-5.201056e-003 -3.254942e-001 -2.612447e+000 33 25 20
-5.268364e-003 -3.253758e-001 -2.613493e+000 33 25 20
-6.306861e-001 -2.220701e-001 -2.562932e+000 198 96 119
-3.728181e-001 -1.987564e-001 -2.603267e+000 57 72 62
8.500086e-001 1.773870e-002 -3.047900e+000 203 212 205
-2.127037e-002 4.344283e-002 -2.777136e+000 120 201 214
8.106245e-001 4.401933e-002 -3.035604e+000 197 207 199
8.394626e-001 4.862337e-002 -3.031077e+000 74 62 46
6.602323e-001 2.526823e-001 -2.845404e+000 102 105 88
-7.555932e-001 2.916869e-001 -2.522634e+000 151 140 143
2.389099e-001 -7.823408e-001 -2.658241e+000 131 135 124
6.087742e-001 -7.839193e-001 -2.789532e+000 127 141 136
1.186134e-001 -7.348473e-001 -2.768999e+000 222 202 80
-6.680009e-001 -7.124194e-001 -2.703718e+000 168 74 97
-4.774958e-001 -5.903585e-001 -2.668284e+000 96 159 106
-8.946410e-002 -4.897680e-001 -2.635272e+000 207 210 203
7.019111e-002 -4.789605e-001 -2.682297e+000 213 215 211
9.410254e-002 -4.638254e-001 -2.684974e+000 41 14 9
9.250257e-002 -4.461105e-001 -2.681637e+000 41 12 7
4.535968e-002 -4.333608e-001 -2.663453e+000 20 22 22
4.630768e-002 -4.340162e-001 -2.662142e+000 20 22 22
9.774070e-001 -5.059605e-001 -3.191550e+000 32 27 22
-5.850950e-002 -3.919626e-001 -2.615348e+000 198 201 193
-1.150951e-001 -3.848601e-001 -2.596519e+000 28 31 33
-1.925811e-002 -3.856809e-001 -2.625331e+000 213 216 210
-1.938172e-002 -3.856474e-001 -2.626585e+000 213 216 210
8.890345e-002 -3.588072e-001 -2.653801e+000 44 10 6
-9.099053e-002 -3.403087e-001 -2.587032e+000 208 211 209
-9.130426e-002 -3.411905e-001 -2.588622e+000 208 211 209
-5.290180e-001 -3.339460e-001 -2.568568e+000 37 48 36
6.497211e-002 -3.397199e-001 -2.637910e+000 246 43 30
6.492085e-002 -3.375468e-001 -2.637273e+000 246 43 30
-3.888341e-002 -3.335544e-001 -2.600534e+000 209 214 209
1.950820e-002 -3.250425e-001 -2.619088e+000 244 44 38
6.281437e-002 -3.176191e-001 -2.631144e+000 243 42 33
6.277818e-002 -3.172607e-001 -2.630798e+000 243 42 33
7.991322e-002 -3.015624e-001 -2.632986e+000 64 7 1
-7.314642e-001 -1.354306e-001 -2.490261e+000 177 122 140
9.771452e-001 2.374352e-001 -3.074666e+000 55 51 53
6.000271e-001 4.129755e-001 -2.807227e+000 217 232 231
-7.283004e-001 4.745039e-001 -2.549862e+000 40 21 17
-7.458683e-001 5.071646e-001 -2.569569e+000 97 79 77
-1.095771e-001 6.201756e-001 -2.669815e+000 134 133 130
9.215683e-001 -1.060509e+000 -2.867922e+000 183 190 183
-1.134696e-001 -8.496556e-001 -2.669407e+000 51 35 3
2.037443e+000 -1.330565e+000 -4.802402e+000 81 76 77
-4.691372e-001 -7.515623e-001 -2.719816e+000 35 66 40
-6.505263e-001 -7.311588e-001 -2.714185e+000 146 24 52
-6.565048e-001 -6.590091e-001 -2.682444e+000 149 26 54
1.565185e+000 -1.139454e+000 -5.001998e+000 96 81 88
1.565185e+000 -1.139454e+000 -5.001998e+000 96 81 88
-4.879159e-001 -6.112419e-001 -2.670661e+000 111 164 112
6.856955e-002 -5.760760e-001 -2.713380e+000 163 125 122
-6.756249e-001 -4.832042e-001 -2.624893e+000 147 33 69
-4.904270e-002 -4.819080e-001 -2.644987e+000 28 27 23
-4.881871e-002 -4.815377e-001 -2.644658e+000 28 27 23
-9.242724e-002 -4.625470e-001 -2.626736e+000 214 212 206
2.703853e-002 -4.644271e-001 -2.666366e+000 30 28 28
2.703853e-002 -4.644271e-001 -2.666366e+000 30 28 28
-6.588829e-002 -4.571801e-001 -2.634046e+000 206 209 205
-6.580689e-002 -4.577254e-001 -2.633367e+000 206 209 205
-8.274369e-002 -4.496637e-001 -2.625838e+000 22 21 26
-8.274369e-002 -4.496637e-001 -2.625838e+000 22 21 26
1.703159e+000 -8.683072e-001 -5.303584e+000 128 126 131
1.241739e-002 -4.479194e-001 -2.654456e+000 214 215 208
-1.264998e-001 -4.398748e-001 -2.608096e+000 210 209 202
-2.573986e-002 -4.397319e-001 -2.640785e+000 13 17 18
-9.843663e-002 -4.349606e-001 -2.615474e+000 214 217 211
-9.841800e-002 -4.349593e-001 -2.615403e+000 214 217 211
-1.913430e-002 -4.252223e-001 -2.637402e+000 218 219 217
4.617165e-002 -4.161536e-001 -2.655242e+000 216 222 220
7.664176e-002 -4.106814e-001 -2.664702e+000 216 218 215
-1.010739e-001 -3.939919e-001 -2.603047e+000 215 222 216
1.691198e-002 -3.778512e-001 -2.635354e+000 216 224 217
1.704579e-002 -3.781770e-001 -2.635073e+000 216 224 217
-1.036750e-001 -3.693217e-001 -2.589742e+000 216 217 214
6.184694e-002 -3.593133e-001 -2.645543e+000 21 20 16
-3.989873e-002 -3.334598e-001 -2.601238e+000 209 212 208
6.841227e-001 2.958121e-002 -2.916263e+000 111 121 91
6.562355e-001 7.366946e-002 -2.886086e+000 163 180 162
6.638118e-001 1.001787e-001 -2.863237e+000 190 202 191
6.149914e-001 3.647793e-001 -2.819441e+000 169 180 166
-4.477746e-002 3.961782e-001 -2.692362e+000 160 151 142
-4.477746e-002 3.961782e-001 -2.692362e+000 160 151 142
1.923907e-001 3.927384e-001 -2.684875e+000 27 34 42
-7.391543e-002 4.342067e-001 -2.673535e+000 116 112 109
-7.162597e-001 4.270055e-001 -2.540215e+000 52 28 24
-2.671546e-001 4.711466e-001 -2.655272e+000 69 61 54
-2.618887e-001 5.480572e-001 -2.664150e+000 133 130 121
-7.040961e-001 5.958437e-001 -2.557598e+000 137 122 125
-2.784188e-001 -9.171974e-001 -2.585827e+000 15 16 13
2.073465e+000 -1.496120e+000 -4.641835e+000 138 129 132
-3.253065e-001 -8.623663e-001 -2.591679e+000 159 184 221
1.118999e-001 -8.331265e-001 -2.637437e+000 190 205 90
9.672586e-002 -8.304304e-001 -2.637167e+000 197 215 102
-3.903213e-001 -6.711799e-001 -2.730333e+000 93 136 91
-4.729534e-001 -6.038519e-001 -2.674886e+000 19 61 23
-6.224079e-002 -5.951315e-001 -2.678009e+000 174 121 115
-4.062509e-002 -5.910387e-001 -2.683347e+000 188 149 148
-2.071626e-002 -5.878922e-001 -2.687666e+000 170 133 129
-4.604128e-001 -5.838656e-001 -2.672413e+000 16 57 22
3.227788e-002 -5.803903e-001 -2.702665e+000 183 141 145
8.751333e-002 -5.726296e-001 -2.719809e+000 183 141 139
-1.046938e-001 -4.734331e-001 -2.626375e+000 17 15 13
-1.055785e-001 -4.737466e-001 -2.627281e+000 17 15 13
8.178458e-002 -4.783146e-001 -2.687963e+000 218 222 216
-6.789728e-001 -4.643169e-001 -2.618258e+000 22 100 120
1.601821e+000 -8.855440e-001 -5.252380e+000 92 77 79
-3.587992e-002 -4.529683e-001 -2.641644e+000 218 220 216
-1.294270e-002 -4.491654e-001 -2.647350e+000 217 218 216
-7.481281e-002 -4.330634e-001 -2.622021e+000 213 213 213
8.010923e-002 -4.351817e-001 -2.673897e+000 218 222 217
8.034478e-002 -4.353735e-001 -2.673749e+000 218 222 217
-3.880127e-002 -4.289700e-001 -2.631731e+000 219 215 217
3.010431e-002 -4.303250e-001 -2.654592e+000 19 15 18
3.007257e-002 -4.303370e-001 -2.654689e+000 19 15 18
-7.343478e-003 -4.154198e-001 -2.639003e+000 13 15 11
-7.559216e-003 -4.142880e-001 -2.640674e+000 13 15 11
1.187942e-002 -3.412749e-001 -2.621150e+000 92 2 0
1.187942e-002 -3.412749e-001 -2.621150e+000 92 2 0
-1.470249e-001 -3.334640e-001 -2.569459e+000 17 17 16
-1.469595e-001 -3.333720e-001 -2.568261e+000 17 17 16
3.758339e-002 -3.366491e-001 -2.629934e+000 81 1 0
8.122614e-002 -3.295335e-001 -2.641448e+000 110 0 0
8.122614e-002 -3.295335e-001 -2.641448e+000 110 0 0
-2.152653e-002 -3.186610e-001 -2.599764e+000 222 220 215
4.146501e-001 -3.051802e-001 -2.534484e+000 100 173 77
1.831936e+000 -6.431720e-001 -5.542744e+000 133 121 125
3.639249e-002 -3.070591e-001 -2.618729e+000 83 2 0
-6.838200e-001 -2.985131e-001 -2.559671e+000 82 166 185
1.905450e+000 -6.187666e-001 -5.569985e+000 133 122 128
1.905450e+000 -6.187666e-001 -5.569985e+000 133 122 128
1.838342e+000 -6.161736e-001 -5.568599e+000 81 61 63
1.891204e+000 -5.245604e-001 -5.661734e+000 132 119 126
-6.954186e-001 -2.132984e-001 -2.523185e+000 72 166 196
-3.546275e-001 -1.858894e-001 -2.606008e+000 204 216 208
7.942555e-001 -4.376140e-002 -3.112057e+000 52 49 34
4.419274e-001 1.131434e-003 -3.020393e+000 39 87 4
9.081962e-001 2.448083e-002 -3.060784e+000 219 224 220
6.777165e-001 1.264281e-001 -2.838304e+000 201 216 212
9.477468e-001 2.012502e-001 -3.053439e+000 213 211 214
6.004534e-001 3.530557e-001 -2.823315e+000 217 232 226
5.885692e-001 3.633054e-001 -2.823660e+000 158 175 158
-6.987719e-001 4.321159e-001 -2.530856e+000 131 114 108
5.717275e-001 5.069373e-001 -2.729542e+000 122 139 121
5.817391e-001 5.121044e-001 -2.718065e+000 190 208 195
-1.113339e-002 -4.909182e-001 -2.661496e+000 219 220 222
-1.718143e-001 -4.538734e-001 -2.626917e+000 169 124 98
-3.464132e-001 3.207219e-001 -2.663161e+000 233 238 241
-3.476875e-001 3.248786e-001 -2.673557e+000 233 238 241
4.348004e-002 -8.618755e-001 -2.653855e+000 78 59 18
-1.247828e-001 3.915730e-001 -2.718557e+000 106 92 79
-4.464538e-001 -4.747387e-001 -2.640887e+000 44 41 41
-5.840566e-001 -2.203910e-001 -2.552238e+000 18 18 16
1.129322e-001 4.122541e-001 -2.762697e+000 122 128 126
-1.203446e-001 4.974661e-001 -2.704984e+000 178 183 179
-4.454845e-001 -9.678855e-001 -2.520943e+000 29 37 37
-2.056516e-001 4.614468e-001 -2.679324e+000 186 191 181
-4.256908e-001 -5.896932e-001 -2.688529e+000 41 35 34
-4.868886e-001 -2.823433e-001 -2.562493e+000 77 90 72
-1.605568e-001 -2.629068e-001 -2.548686e+000 181 111 66
-1.605568e-001 -2.629068e-001 -2.548686e+000 181 111 66
-1.632553e-001 3.310112e-001 -2.774469e+000 235 243 248
-1.947057e-002 -8.117133e-001 -2.625153e+000 231 233 77
-5.325170e-001 -2.539204e-001 -2.550487e+000 80 93 75
-6.126863e-001 -1.740495e-001 -2.549498e+000 108 170 188
2.424221e-001 1.131571e-001 -2.733439e+000 28 54 17
-1.966333e-002 -9.430378e-001 -2.557154e+000 181 136 67
-1.966333e-002 -9.430378e-001 -2.557154e+000 181 136 67
9.638933e-001 -5.403447e-001 -3.251656e+000 109 103 95
-4.166777e-001 -1.981868e-001 -2.580555e+000 89 99 89
-4.045404e-001 -1.144606e-001 -2.642127e+000 180 178 189
-6.342407e-001 2.115422e-002 -2.484654e+000 189 209 173
-4.803728e-001 3.269257e-001 -2.918431e+000 93 184 215
2.640348e-001 1.871847e-001 -2.739746e+000 92 0 0
-5.884321e-001 1.804632e-001 -2.529443e+000 228 233 237
-1.841461e-001 3.118144e-001 -2.833453e+000 230 132 164
4.713496e-001 -1.040946e+000 -2.558402e+000 145 148 138
1.833353e-001 -9.859949e-001 -2.538706e+000 45 49 48
5.206795e-001 -1.016849e+000 -2.587969e+000 148 153 142
-6.967656e-002 -9.401230e-001 -2.561140e+000 46 51 54
9.968603e-002 -9.176219e-001 -2.588730e+000 42 51 52
-6.194375e-002 -8.973549e-001 -2.601379e+000 46 51 53
-3.535293e-002 -8.798856e-001 -2.634881e+000 102 123 109
-4.697757e-001 -5.398483e-001 -2.658082e+000 45 40 40
-3.806277e-001 -5.381456e-001 -2.693133e+000 29 23 18
-6.141460e-001 -3.528857e-001 -2.611661e+000 201 188 151
-4.910032e-001 -1.192380e-001 -2.596208e+000 182 86 114
-3.517372e-001 -1.022681e-001 -2.660887e+000 179 195 207
-4.216304e-001 3.451255e-001 -2.950340e+000 223 122 156
6.005274e-001 3.052111e-001 -2.839550e+000 121 129 105
-6.435100e-001 2.726503e-001 -2.512988e+000 157 165 158
-1.710508e-001 4.866264e-001 -2.713759e+000 192 201 196
2.068676e-001 5.627285e-001 -2.712206e+000 158 167 162
-4.657078e-001 -1.054094e+000 -2.446989e+000 91 116 111
5.981508e-001 -8.227747e-001 -2.786140e+000 147 152 142
-4.617121e-001 -6.225086e-001 -2.684265e+000 46 66 42
9.988969e-002 -5.845870e-001 -2.733901e+000 53 13 7
-1.645508e-001 -1.585386e-001 -2.696817e+000 203 201 180
3.939266e-001 2.181267e-001 -2.771920e+000 121 18 18
2.598883e-001 -1.084058e+000 -2.445385e+000 151 171 168
-1.127322e-001 -8.505021e-001 -2.662988e+000 43 33 9
1.260508e-002 -8.095415e-001 -2.646237e+000 39 42 6
1.549083e-002 -5.839854e-001 -2.697762e+000 183 135 133
2.087634e-002 -5.820636e-001 -2.702204e+000 183 135 133
-1.284537e-001 -3.970458e-001 -2.594052e+000 218 219 217
-6.083220e-001 2.979505e-001 -2.495123e+000 230 230 234
-6.337854e-001 -7.491373e-001 -2.722364e+000 195 76 113
6.233987e-002 -8.120839e-001 -2.641774e+000 218 234 126
-4.096786e-001 -6.810651e-001 -2.721604e+000 97 129 91
9.203467e-001 -7.115901e-001 -2.653735e+000 109 144 63
-4.382006e-003 -5.674821e-001 -2.741343e+000 25 19 16
1.013030e-001 -5.720968e-001 -2.725078e+000 71 1 0
1.013014e-001 -5.721685e-001 -2.724485e+000 71 1 0
-1.081781e-002 -4.915513e-001 -2.660114e+000 221 222 219
4.868502e-003 -3.885008e-001 -2.634341e+000 17 17 18
4.932700e-003 -3.883384e-001 -2.634771e+000 17 17 18
-1.403838e-001 -3.742618e-001 -2.582761e+000 211 214 214
-4.318081e-002 -3.604835e-001 -2.609023e+000 223 216 214
8.865918e-001 4.322925e-002 -3.041249e+000 211 209 201
8.506221e-001 4.856146e-002 -3.000849e+000 204 208 199
-2.813637e-001 4.658730e-001 -2.670707e+000 185 184 176
-4.259309e-001 -3.849344e-001 -2.634707e+000 90 175 120
-9.398183e-002 -4.879670e-001 -2.638284e+000 200 201 196
-4.447049e-001 -2.715810e-001 -2.583676e+000 62 85 67
3.087261e-001 -5.666091e-002 -2.986678e+000 104 154 75
-4.618999e-001 -6.221765e-001 -2.683606e+000 28 57 33
-5.854707e-002 -3.917423e-001 -2.614658e+000 198 201 193
3.532946e-002 -4.464604e-001 -2.661150e+000 214 218 212
8.169546e-001 -1.268864e-002 -3.065811e+000 199 203 197
-6.622427e-001 -6.249400e-001 -2.678124e+000 140 32 54
-1.996654e-003 -5.862877e-001 -2.693791e+000 187 146 145
-1.454862e-001 -3.630134e-001 -2.577960e+000 19 18 17
-1.460614e-001 -3.631373e-001 -2.579302e+000 19 18 17
-1.172358e-002 -3.413050e-001 -2.614876e+000 60 17 11
-6.227010e-001 -2.908318e-001 -2.587979e+000 182 87 111
6.332264e-002 -3.328743e-001 -2.641807e+000 243 42 33
-6.403321e-001 -6.979611e-002 -2.513098e+000 119 176 176
-6.350737e-001 -8.324941e-002 -2.522000e+000 140 171 175
-6.283738e-001 -6.165213e-002 -2.515612e+000 171 85 114
-1.419499e-001 -6.462576e-001 -2.650039e+000 211 185 39
-1.216962e-001 -3.015482e-001 -2.569545e+000 217 221 216
-4.468969e-001 2.736374e-001 -2.705313e+000 235 237 242
-1.637440e-001 -3.779031e-001 -2.578700e+000 210 210 205
-5.251713e-001 -3.085758e-001 -2.571966e+000 87 111 87
-6.019682e-001 -4.690709e-001 -2.649894e+000 116 178 177
-7.977573e-002 -3.832889e-001 -2.607704e+000 29 29 27
-3.797930e-001 -8.998750e-002 -2.640065e+000 190 90 121
-5.300259e-001 -4.916686e-002 -2.557367e+000 150 195 202
-2.466776e-001 2.529365e-001 -2.703575e+000 95 200 226
5.226077e-002 -1.181749e+000 -2.300584e+000 139 125 115
1.087907e-001 -1.196787e+000 -2.417430e+000 57 23 11
-9.144454e-002 -3.404766e-001 -2.588718e+000 213 214 213
-1.094469e-001 6.205229e-001 -2.670382e+000 138 130 121
-3.790331e-001 -7.006119e-001 -2.743967e+000 120 147 131
-1.064548e-001 -4.744988e-001 -2.625465e+000 16 18 13
6.401035e-002 -4.391819e-001 -2.668854e+000 218 219 219
-4.537139e-001 -1.160533e-001 -2.612030e+000 155 195 197
-4.200051e-001 -1.987571e-002 -2.604215e+000 170 199 207
3.701052e-001 9.507007e-001 -2.733392e+000 59 28 23
-6.239382e-002 -5.954559e-001 -2.678227e+000 162 120 121
1.579149e-002 -5.580956e-001 -2.769813e+000 20 17 14
3.819629e-002 -3.369721e-001 -2.629658e+000 92 7 1
-5.179529e-001 -4.603288e-001 -2.639953e+000 33 35 29
3.839996e-001 3.992032e-001 -2.732491e+000 135 210 113
1.878048e-001 -9.311245e-001 -2.590845e+000 21 62 39
6.583449e-002 -3.877295e-001 -2.654794e+000 75 78 77
-4.994104e-001 -3.211361e-001 -2.585344e+000 79 149 108
5.965388e-001 4.498563e-001 -2.788661e+000 120 123 104
2.139306e-001 6.155762e-001 -2.599408e+000 220 231 230
4.821331e-001 -1.013322e+000 -2.570572e+000 41 26 17
-4.315320e-001 -7.404824e-001 -2.726800e+000 69 150 100
-3.795366e-001 -7.254618e-001 -2.741997e+000 76 155 103
-2.353931e-001 3.285061e-001 -2.688461e+000 168 169 154
-2.353931e-001 3.285061e-001 -2.688461e+000 168 169 154
5.987237e-001 4.468388e-001 -2.788834e+000 117 121 103
-5.762305e-001 -1.050592e+000 -2.456223e+000 78 107 88
-6.043357e-001 -4.713426e-001 -2.656030e+000 107 170 168
4.720340e-001 1.135978e-001 -3.041135e+000 18 35 13
-4.708437e-001 6.412765e-002 -2.549060e+000 197 214 166
-4.466466e-001 7.788342e-002 -2.557093e+000 56 173 217
-5.244129e-001 1.460775e-001 -2.512224e+000 212 100 138
5.702757e-001 3.076598e-001 -2.868737e+000 161 184 160
1.962266e-001 -1.024856e+000 -2.487045e+000 60 79 96
-2.935854e-001 -9.177713e-001 -2.578941e+000 61 91 78
8.238829e-001 -1.018874e-001 -3.116875e+000 116 114 101
8.239267e-001 -1.027426e-001 -3.112848e+000 116 114 101
8.508277e-001 -4.329608e-002 -3.087410e+000 205 211 204
6.227174e-001 4.073384e-001 -2.792539e+000 161 169 158
-4.956217e-002 -6.073187e-001 -2.683404e+000 18 18 16
6.611502e-002 -4.790244e-001 -2.682729e+000 214 216 213
-1.228038e-003 -5.863293e-001 -2.692742e+000 186 150 152
-1.291135e-002 -4.490481e-001 -2.648461e+000 215 219 216
4.528619e-002 -8.987678e-001 -2.589538e+000 33 69 55
-3.867771e-001 -6.869352e-001 -2.735939e+000 40 64 46
-1.195218e-001 -6.012417e-001 -2.664010e+000 144 117 113
-1.009364e-001 -4.843983e-001 -2.630801e+000 213 216 211
-1.010256e-001 -4.843501e-001 -2.630915e+000 213 216 211
8.150672e-002 -4.566167e-001 -2.680572e+000 214 217 217
-7.786841e-002 -4.708448e-001 -2.631817e+000 9 13 17
-3.525928e-002 -4.405060e-001 -2.636085e+000 10 13 20
7.599286e-002 -4.242377e-001 -2.668682e+000 16 13 16
-5.671988e-002 -4.231275e-001 -2.624511e+000 210 212 205
-1.280856e-001 -3.456794e-001 -2.577739e+000 17 16 18
-1.183907e-002 -3.122306e-001 -2.607362e+000 17 20 23
-1.254974e-001 -2.592133e-001 -2.552903e+000 174 112 68
3.579926e-001 -2.060540e-001 -2.545411e+000 147 214 118
8.518073e-001 2.508837e-002 -3.038036e+000 213 214 208
7.384408e-001 1.391647e-001 -3.005267e+000 194 198 192
7.898429e-001 1.583794e-001 -2.985074e+000 179 185 178
6.575401e-001 3.447814e-001 -2.806954e+000 167 173 160
-6.366795e-001 -3.665192e-001 -2.603391e+000 200 63 107
-6.862388e-001 -1.909820e-001 -2.527462e+000 108 176 185
-8.557788e-002 -1.101755e+000 -2.389630e+000 13 13 11
-5.631021e-001 -9.954998e-001 -2.443822e+000 28 28 30
7.310819e-002 -3.556304e-001 -2.647330e+000 23 16 21
-7.751788e-001 3.284674e+000 -9.037982e+000 92 58 57
-6.890440e-001 9.127153e-003 -2.468615e+000 183 202 153
6.368188e-001 -7.899392e-001 -2.735614e+000 78 118 43
-1.027296e-001 -2.625103e-002 -2.760422e+000 71 195 229
9.395718e-002 -4.899003e-001 -2.696784e+000 39 11 12
9.395718e-002 -4.899003e-001 -2.696784e+000 39 11 12
3.956198e-001 6.211400e-001 -2.684064e+000 139 142 130
2.400450e-001 -7.689714e-001 -2.716120e+000 20 19 17
-5.051937e-001 -3.232417e-001 -2.578669e+000 88 135 99
2.573424e-001 -8.369552e-001 -2.668760e+000 240 249 105
3.168911e-001 -9.195617e-001 -2.606962e+000 7 13 12
-4.764944e-001 -3.857723e-001 -2.609685e+000 59 56 52
-2.922029e-001 5.229679e-001 -2.640404e+000 192 195 190
3.029808e-001 -1.210994e+000 -2.484170e+000 18 14 13
-1.590921e-003 -4.315111e-001 -2.644511e+000 34 28 25
-9.257706e-002 1.586607e-001 -2.706228e+000 200 232 198
-5.804771e-001 1.721348e-001 -2.583105e+000 97 176 204
-7.820629e-001 2.118479e-001 -2.547832e+000 133 132 123
-6.396926e-001 2.831952e-001 -2.540543e+000 159 167 159
-2.474430e-001 3.907985e-001 -2.675273e+000 76 69 61
-2.663285e-001 4.690152e-001 -2.660378e+000 78 66 54
-6.825304e-001 -9.227839e-001 -2.883726e+000 64 64 66
-4.003779e-001 -9.167459e-001 -2.589861e+000 42 85 66
-3.786813e-001 -6.998312e-001 -2.746453e+000 120 147 131
-6.586923e-001 -6.390832e-001 -2.680478e+000 148 30 57
-1.897413e-002 -4.256276e-001 -2.639192e+000 224 224 221
-6.987229e-001 -1.878294e-001 -2.517988e+000 124 171 191
8.200398e-001 7.920514e-002 -3.003838e+000 190 196 181
6.921824e-001 2.125643e-001 -2.826408e+000 216 234 234
6.921824e-001 2.125643e-001 -2.826408e+000 216 234 234
5.877586e-001 2.721178e-001 -2.881039e+000 94 110 74
2.201048e-001 3.692991e-001 -2.677388e+000 93 133 76
2.352571e-001 4.100144e-001 -2.673776e+000 219 244 252
-7.099904e-001 -8.708186e-001 -2.837204e+000 74 70 73
-6.775968e-001 -8.531998e-001 -2.832956e+000 121 123 124
-2.804025e-002 -6.145221e-001 -2.697442e+000 212 195 79
8.106513e-002 -4.559804e-001 -2.684810e+000 218 222 219
-7.943865e-001 1.982522e-001 -2.553562e+000 80 58 50
6.347883e-001 2.798689e-001 -2.840011e+000 147 151 137
-2.943762e-001 4.609329e-001 -2.665275e+000 141 140 135
2.319046e-001 4.280572e-001 -2.677635e+000 37 65 61
9.355824e-001 5.303901e-001 -2.884921e+000 25 21 35
-7.220263e-001 4.280872e-001 -2.532820e+000 67 43 36
-6.089980e-001 -7.444193e-001 -2.735123e+000 113 162 176
8.383341e-002 -1.739029e-001 -2.643465e+000 32 30 18
-1.113517e-001 -6.164096e-001 -2.668349e+000 17 16 8
-4.864902e-002 -3.486369e-001 -2.599877e+000 18 20 19
-8.764987e-002 -7.163541e-001 -2.698610e+000 220 193 41
-1.238447e-001 5.124649e-001 -2.711230e+000 179 181 176
-7.378921e-001 2.468184e+000 -3.567542e+000 70 33 17
7.373848e-002 -1.201172e+000 -2.414915e+000 176 175 164
6.384769e-001 3.336223e-001 -2.831441e+000 210 227 222
-9.569821e-002 5.925067e-001 -2.687143e+000 147 139 131
1.133383e-001 4.990768e-001 -2.625553e+000 201 213 212
3.191614e-001 -1.218659e+000 -2.472407e+000 130 132 128
3.191614e-001 -1.218659e+000 -2.472407e+000 130 132 128
-4.769297e-001 -7.246818e-001 -2.707898e+000 97 159 98
4.938205e-001 2.695956e-001 -2.845910e+000 158 217 123
-6.906278e-002 -1.277467e+000 -2.369411e+000 99 95 93
-2.191992e-001 -1.260656e+000 -2.363242e+000 36 26 24
-2.472587e-001 -1.259890e+000 -2.356882e+000 34 22 22
-2.288587e-001 -1.244436e+000 -2.356449e+000 153 148 143
-2.749419e-001 -1.126434e+000 -2.427849e+000 120 120 115
-1.329563e-001 -1.131762e+000 -2.435748e+000 131 133 128
5.373624e-001 -1.138880e+000 -2.530195e+000 150 140 134
4.364712e-001 -1.133088e+000 -2.504756e+000 178 186 173
5.588953e-001 -1.115465e+000 -2.534075e+000 182 191 183
-6.307578e-001 -2.232342e-001 -2.562815e+000 205 101 125
3.087246e-001 -5.351947e-002 -2.989866e+000 110 161 80
3.364221e-001 -4.625592e-002 -2.991656e+000 24 52 7
8.611674e-001 -2.061422e-002 -3.075796e+000 122 110 93
8.611674e-001 -2.061422e-002 -3.075796e+000 122 110 93
8.550682e-001 6.321316e-002 -3.007083e+000 191 199 193
6.071512e-001 3.049362e-001 -2.848602e+000 130 139 116
-2.419385e-001 4.853877e-001 -2.654942e+000 195 202 197
-2.452471e-001 5.430225e-001 -2.651982e+000 151 144 144
-2.159615e-001 -1.080127e+000 -2.418315e+000 10 11 9
4.148716e-001 -1.137828e+000 -2.496081e+000 186 192 180
5.829664e-001 -1.115333e+000 -2.536653e+000 187 194 184
5.131343e-002 -8.219670e-001 -2.643633e+000 48 46 16
8.854501e-001 5.886512e-002 -3.034941e+000 94 68 51
8.854501e-001 5.886512e-002 -3.034941e+000 94 68 51
2.270293e-001 3.089120e-001 -2.664686e+000 60 81 37
-8.561530e-002 -4.271097e-001 -2.613707e+000 27 26 26
-8.561530e-002 -4.271097e-001 -2.613707e+000 27 26 26
7.471272e-002 -8.392047e-001 -2.634174e+000 29 27 14
6.057872e-002 -4.385296e-001 -2.666944e+000 226 228 229
6.057872e-002 -4.385296e-001 -2.666944e+000 226 228 229
8.512189e-001 5.233078e-002 -3.009101e+000 207 212 202
8.849719e-001 6.279368e-002 -3.015349e+000 199 202 197
1.389886e-001 5.034619e-001 -2.653874e+000 99 91 71
5.656704e-001 5.244262e-001 -2.715446e+000 139 143 127
-8.033695e-002 -8.271635e-001 -2.650718e+000 155 126 2
-3.238207e-002 -4.114840e-001 -2.627323e+000 30 30 29
-3.238207e-002 -4.114840e-001 -2.627323e+000 30 30 29
7.031027e-003 -3.067988e-001 -2.615541e+000 65 26 18
3.373688e-001 -7.525756e-002 -3.004790e+000 58 103 27
6.704363e-001 1.207505e-001 -2.857243e+000 154 162 151
1.933020e-001 3.891009e-001 -2.681776e+000 20 29 31
-1.421214e-001 -3.882682e-001 -2.589161e+000 32 32 37
1.012815e-001 -5.849928e-001 -2.725148e+000 50 13 7
1.012815e-001 -5.849928e-001 -2.725148e+000 50 13 7
4.398889e-001 1.200934e-001 -3.010696e+000 194 228 85
4.398889e-001 1.200934e-001 -3.010696e+000 194 228 85
-2.645560e-002 -4.395341e-001 -2.640637e+000 14 17 21
8.785599e-002 -5.730542e-001 -2.719156e+000 188 147 143
-1.818904e-002 -4.260055e-001 -2.637094e+000 222 224 219
-6.733976e-001 -1.735246e-001 -2.524258e+000 154 166 177
-4.189826e-002 -3.764325e-001 -2.617127e+000 39 34 31
-6.019348e-003 -3.261236e-001 -2.611515e+000 47 17 19
-1.437585e-001 -3.526882e-001 -2.575315e+000 38 31 26
3.930212e-002 -3.214968e-001 -2.624142e+000 90 1 0
1.449035e-001 1.413822e-002 3.651911e-001 0 255 0
1.427263e-001 1.462794e-002 3.152409e-001 255 255 0
1.329781e-001 1.260902e+000 2.489810e-002 255 0 0
1.284127e-001 1.241647e+000 -2.101917e-002 255 255 0
-3.500816e-001 -1.081705e+000 2.111178e-001 0 255 0
-3.456840e-001 -1.067043e+000 1.635186e-001 255 255 0
5.638490e-001 -8.534555e-001 5.380904e-002 255 0 0
5.541566e-001 -8.416578e-001 6.197355e-003 255 255 0
1.941027e+000 -9.441782e-001 7.230912e-002 0 255 0
1.913445e+000 -9.326657e-001 3.222509e-002 255 255 0
8.875542e-001 -1.977988e+000 -9.212160e-001 255 0 0
8.720043e-001 -1.945664e+000 -9.560492e-001 255 255 0
-1.367912e+000 -7.236165e-001 -2.608810e-001 0 255 0
-1.350160e+000 -7.135597e-001 -3.065287e-001 255 255 0
1.849294e-001 -2.047920e+000 -8.549244e-001 255 0 0
1.750000e-001 -2.016740e+000 -8.927291e-001 255 255 0
2.394645e+000 -2.301277e-001 -9.525577e-001 0 255 0
2.355442e+000 -2.301860e-001 -9.835910e-001 255 255 0
