# .PCD v0.7 - Point Cloud Data file format
VERSION 0.7
FIELDS x y z
SIZE 4 4 4
TYPE F F F
COUNT 1 1 1
WIDTH 64
HEIGHT 1
VIEWPOINT 0 0 0 1 0 0 0
POINTS 64
DATA ascii
-0.52517128 -0.30857581 -2.5719659
0.39561981 0.62114 -2.6840639
-0.50519371 -0.32324171 -2.5786691
0.2201048 0.36929911 -2.677388
-0.53251702 -0.25392041 -2.550487
-0.37281811 -0.1987564 -2.603267
-0.41031829 -0.25661501 -2.6096179
-0.46379051 -0.61857623 -2.6803911
0.88659179 0.043229248 -3.041249
-0.47746241 -0.72399998 -2.707804
-0.44645381 -0.47473869 -2.640887
-0.46193579 -0.56224918 -2.6648059
-0.46475059 -0.33269531 -2.6011159
0.58856922 0.36330539 -2.8236599
0.64572543 -0.028599249 -2.9778759
0.43256569 0.46969771 -2.7317951
-0.39032131 -0.67117989 -2.7303331
-0.49941039 -0.32113609 -2.5853441
-0.38062769 -0.5381456 -2.6931331
-0.406652 -0.52151239 -2.6790349
-0.52901798 -0.33394599 -2.568568
-0.45014739 -0.4714371 -2.6529689
-0.42494833 -0.38444415 -2.6330299
-0.45550519 -0.65613627 -2.6969581
-0.404351 -0.2269956 -2.598351
-0.4604128 -0.58386558 -2.6724131
-0.47295341 -0.60385191 -2.674886
-0.46977571 -0.53984833 -2.658082
0.88545012 0.058865119 -3.034941
-0.3786813 -0.69983119 -2.746453
0.26403481 0.18718471 -2.7397461
0.23580736 0.41089576 -2.6753063
-0.40967861 -0.68106508 -2.7216041
-0.4078331 -0.52199543 -2.681313
-0.4264906 -0.70079547 -2.721591
-0.35459542 -0.18585239 -2.606184
-0.45458689 -0.6555627 -2.700706
0.90819621 0.024480831 -3.0607841
-0.431532 -0.74048239 -2.7268
0.53327179 0.52527642 -2.753392
-0.4256908 -0.58969319 -2.688529
0.96389329 -0.54034472 -3.2516561
-0.461806 -0.62234259 -2.6839354
0.21393061 0.61557621 -2.5994079
-0.41667771 -0.1981868 -2.580555
0.85039455 0.017173521 -3.0471349
-0.47749579 -0.5903585 -2.6682839
0.60402668 0.30691808 -2.845829
-0.44470489 -0.27158099 -2.5836761
-0.47678196 -0.3876583 -2.6090555
-0.3867771 -0.68693519 -2.735939
-0.48456889 -0.3166683 -2.5832119
0.82003981 0.07920514 -3.0038381
0.38399959 0.39920321 -2.732491
-0.46913719 -0.7515623 -2.719816
-0.41560709 -0.25949761 -2.5986409
-0.43553871 -0.34184831 -2.6143839
-0.4879159 -0.61124188 -2.670661
0.83946258 0.048623368 -3.0310769
0.8518073 0.02508837 -3.0380361
-0.45282981 -0.2237522 -2.5720351
-0.37903309 -0.70061189 -2.7439671
-0.46457529 -0.33183089 -2.598
-0.3795366 -0.72546178 -2.741997
