# .PCD v0.7 - Point Cloud Data file format
VERSION 0.7
FIELDS x y z
SIZE 4 4 4
TYPE F F F
COUNT 1 1 1
WIDTH 541
HEIGHT 1
VIEWPOINT 0 0 0 1 0 0 0
POINTS 541
DATA ascii
-0.52517128 -0.30857581 -2.5719659
1.679889 -1.353924 -4.795083
0.39561981 0.62114 -2.6840639
0.1849294 -2.04792 -0.85492438
1.821689 -1.1712 -4.9990921
-0.0856153 -0.42710969 -2.6137071
0.081285924 -0.45629853 -2.6826911
0.01260508 -0.80954152 -2.6462369
0.12841269 1.241647 -0.02101917
0.039863441 -0.80844671 -2.641073
0.2424221 0.1131571 -2.733439
-0.15724429 -0.53101748 -2.6314731
-0.50519371 -0.32324171 -2.5786691
-0.1109478 -0.4460007 -2.615293
0.59815079 -0.82277471 -2.78614
0.2201048 0.36929911 -2.677388
0.5877586 0.27211779 -2.8810389
0.63744098 0.32037559 -2.8199739
0.066115022 -0.47902441 -2.682729
0.070191108 -0.47896051 -2.682297
-0.6825304 -0.92278391 -2.8837259
-0.53251702 -0.25392041 -2.550487
0.081784584 -0.47831461 -2.687963
-0.37281811 -0.1987564 -2.603267
0.6538049 0.23022281 -2.836611
0.05131343 -0.82196701 -2.6436329
-0.14194991 -0.64625758 -2.650039
-0.1982666 -0.8281936 -2.6918559
0.9512766 0.68585819 -2.971951
0.020876341 -0.58206362 -2.702204
-0.16905279 -0.86215889 -2.646342
1.837496 -0.8443656 -5.327477
0.032277878 -0.58039027 -2.7026651
-0.68382001 -0.29851311 -2.5596709
-0.16118994 -0.48146427 -2.615814
-0.12852655 -0.39742017 -2.5940681
-0.79438651 0.1982522 -2.5535619
0.67043632 0.1207505 -2.8572431
0.063322641 -0.3328743 -2.6418071
0.063463703 -0.42244977 -2.6638389
0.07599286 -0.4242377 -2.6686821
2.0734651 -1.49612 -4.6418352
-0.25055641 0.5521608 -2.660244
0.9771452 0.23743521 -3.074666
0.87200427 -1.945664 -0.9560492
0.57027572 0.3076598 -2.868737
0.061846942 -0.35931331 -2.6455431
0.035329461 -0.4464604 -2.66115
0.073108189 -0.3556304 -2.64733
-0.1254974 -0.2592133 -2.5529029
-0.14040831 -0.3419638 -2.571908
-0.41031829 -0.25661501 -2.6096179
-0.1002849 -0.2548607 -2.5575089
-0.1280856 -0.3456794 -2.577739
-0.6586923 -0.63908321 -2.6804781
-0.46379051 -0.61857623 -2.6803911
0.050655272 -0.3737857 -2.644218
0.02703853 -0.46442711 -2.6663661
1.616852 -1.503112 -4.6285071
-0.019470571 -0.81171328 -2.6251531
2.394645 -0.23012771 -0.95255768
-0.1322293 -0.2746588 -2.552628
-0.1457738 -0.36307535 -2.5786309
-0.65650481 -0.6590091 -2.6824441
0.63494641 -0.3385632 -3.3678429
0.035340227 -0.39901531 -2.647589
0.01538544 -0.48606971 -2.6679759
-0.7252661 -0.1904674 -2.513134
0.88659179 0.043229248 -3.041249
-0.47746241 -0.72399998 -2.707804
0.1087907 -1.196787 -2.4174299
-0.29358539 -0.91777128 -2.5789411
1.913445 -0.93266571 0.032225091
-0.0075592161 -0.41428801 -2.6406741
0.039302122 -0.32149681 -2.6241419
-0.44645381 -0.47473869 -2.640887
-0.040625092 -0.5910387 -2.683347
-0.46193579 -0.56224918 -2.6648059
1.727674 -1.567899 -4.5720668
0.01488711 -0.41259971 -2.642379
-0.069062777 -1.277467 -2.369411
-0.71625972 0.4270055 -2.540215
1.565185 -1.139454 -5.0019979
1.988314 -0.0056119221 -6.1807599
-0.02609773 -0.43963301 -2.6407108
0.01187942 -0.34127489 -2.62115
-0.44689691 0.27363741 -2.705313
0.028279951 -0.3491295 -2.6289849
-0.0016208449 -0.43109167 -2.6445694
1.853732 -1.521153 -4.6294522
0.7942555 -0.043761399 -3.112057
-0.45371389 -0.1160533 -2.61203
0.25988829 -1.084058 -2.445385
-0.46475059 -0.33269531 -2.6011159
-0.1238447 0.51246488 -2.71123
-0.035879921 -0.4529683 -2.641644
-0.01236872 -0.45013899 -2.6457429
-0.64350998 0.2726503 -2.5129881
2.0244169 -0.7322129 -5.4579711
-0.29220289 0.52296788 -2.640404
-0.3127701 -0.84151459 -2.6013491
0.927073 -0.85735053 -2.7609041
0.94774681 0.2012502 -3.0534389
-0.019319914 -0.38566417 -2.625958
2.1192141 -1.403572 -4.7722569
0.58856922 0.36330539 -2.8236599
-0.24667761 0.25293651 -2.7035749
0.81334752 -0.084375739 -3.1166229
2.0652659 -0.83434939 -5.3580461
-0.67634624 -0.4829306 -2.6266365
-0.01183907 -0.31223059 -2.607362
0.64572543 -0.028599249 -2.9778759
0.63478827 0.2798689 -2.8400109
0.43256569 0.46969771 -2.7317951
-0.058297109 -0.49663359 -2.647898
-0.39032131 -0.67117989 -2.7303331
1.7072279 -1.47097 -4.6586261
0.19330201 0.38910091 -2.681776
-0.23539311 0.32850611 -2.6884611
0.21070421 0.38708669 -2.6803579
0.82390475 -0.10231499 -3.1148615
-0.04113381 -0.33407289 -2.6002231
-0.089263849 0.25432879 -2.701009
0.37010521 0.9507007 -2.733392
-0.039391071 -0.33350709 -2.6008859
-0.056719881 -0.4231275 -2.624511
-0.1195218 -0.60124171 -2.66401
-0.029730299 -0.332663 -2.6061349
-0.4466466 0.077883422 -2.5570929
0.66023231 0.2526823 -2.8454039
-0.080336951 -0.82716352 -2.650718
0.60002708 0.41297549 -2.8072269
-0.49941039 -0.32113609 -2.5853441
0.2389099 -0.78234082 -2.658241
-0.063127339 -0.35797769 -2.6018441
0.65623552 0.073669463 -2.886086
-0.082743689 -0.4496637 -2.625838
2.0374429 -1.330565 -4.802402
0.2783201 -0.78610241 -2.6575601
-1.3679121 -0.72361648 -0.26088101
-0.38062769 -0.5381456 -2.6931331
-0.83961707 0.21586961 -2.5664029
-0.2421184 -0.82446527 -2.7074001
0.7898429 0.15837941 -2.985074
-0.20118549 -0.8623991 -2.6543951
-0.092427239 -0.462547 -2.6267359
0.58173913 0.51210439 -2.718065
-0.37979299 -0.089987502 -2.640065
0.85506821 0.063213162 -3.0070829
-0.1010739 -0.39399189 -2.6030469
-0.01966333 -0.94303781 -2.5571539
0.091148242 -0.4211404 -2.6720669
-0.1247828 0.39157301 -2.7185569
0.59763122 0.44834757 -2.7887475
0.043480039 -0.86187547 -2.6538551
0.85062212 0.048561461 -3.000849
-0.1183691 -0.41418689 -2.6041191
-0.6396926 0.2831952 -2.5405431
0.6638118 0.1001787 -2.8632369
0.41465011 -0.30518019 -2.5344839
0.97740698 -0.50596052 -3.19155
-0.63448393 0.021619899 -2.4856548
0.088903449 -0.35880721 -2.653801
-0.097599849 -0.2542223 -2.5632269
-0.14292809 0.2425745 -2.6823721
-0.091246448 -0.34065861 -2.5881243
-0.12655985 -0.43990424 -2.6085
0.175 -2.0167401 -0.8927291
0.86116737 -0.02061422 -3.0757959
-0.406652 -0.52151239 -2.6790349
0.075127788 -0.37050909 -2.6515501
-0.092577063 0.15866069 -2.706228
-0.6733976 -0.1735246 -2.5242579
0.065288447 -0.4634898 -2.675904
-0.41204119 -0.95082068 -2.536478
0.052260771 -1.181749 -2.3005841
-0.4003779 -0.9167459 -2.5898609
-0.1214746 -0.36373109 -2.5853469
-0.60433573 -0.47134259 -2.6560299
1.838342 -0.61617362 -5.5685992
-0.52901798 -0.33394599 -2.568568
-0.103675 -0.3693217 -2.5897419
0.48213309 -1.013322 -2.5705719
0.079913221 -0.3015624 -2.6329861
0.080356292 -0.3027623 -2.6311131
-0.5300259 -0.049166858 -2.5573671
1.90545 -0.61876661 -5.5699849
1.789513 -0.7182557 -5.4619842
-0.68593627 -0.19102 -2.5270777
1.929637 -1.4089299 -4.7363029
0.33736879 -0.075257562 -3.0047901
0.1129322 0.4122541 -2.762697
-0.27841881 -0.91719741 -2.5858271
-0.14204904 -0.3889825 -2.58863
-0.45014739 -0.4714371 -2.6529689
-0.42494833 -0.38444415 -2.6330299
0.074712723 -0.83920473 -2.6341741
0.1133383 0.49907681 -2.6255529
1.994716 -1.322381 -4.837389
-0.75559318 0.29168689 -2.522634
0.096725859 -0.83043039 -2.637167
0.04617165 -0.41615361 -2.655242
-0.45550519 -0.65613627 -2.6969581
0.1118999 -0.83312649 -2.6374371
-0.6954186 -0.2132984 -2.523185
1.9987479 -0.086132228 -6.0960102
-0.404351 -0.2269956 -2.598351
2.2644889 0.1932271 -6.394784
0.04528619 -0.89876783 -2.5895381
0.43988889 0.1200934 -3.0106959
-0.4604128 -0.58386558 -2.6724131
1.917336 -0.85907638 -5.3189702
-0.028040251 -0.6145221 -2.6974421
0.03008844 -0.43033099 -2.6546407
-0.03535293 -0.87988561 -2.634881
-0.73789209 2.468184 -3.5675421
-0.61414599 -0.35288569 -2.611661
-0.14699221 -0.33341801 -2.5688601
-0.2452471 0.54302251 -2.6519821
-0.77517879 3.2846739 -9.037982
-0.66224271 -0.62493998 -2.678124
-0.22885869 -1.244436 -2.3564489
-0.47295341 -0.60385191 -2.674886
-0.16055679 -0.26290679 -2.548686
0.099686027 -0.91762191 -2.5887301
-0.02127037 0.04344283 -2.7771361
0.35799259 -0.206054 -2.5454111
-0.62894332 -0.5535813 -2.650456
0.0049006008 -0.3884196 -2.6345561
-0.46977571 -0.53984833 -2.658082
-0.01753966 -0.4752866 -2.6518791
0.88545012 0.058865119 -3.034941
-0.51795292 -0.46032879 -2.6399529
-0.16441929 -0.1605787 -2.690464
0.68412268 0.02958121 -2.9162631
0.56153059 0.43050969 -2.8186941
0.31916139 -1.218659 -2.4724071
-0.073915429 0.43420669 -2.6735351
-0.1631297 -0.30948851 -2.5487771
-0.69877189 0.43211591 -2.5308559
-0.02856501 -0.8077302 -2.663626
-0.67759681 -0.85319978 -2.8329561
-0.038801271 -0.42897001 -2.631731
-0.2419385 0.48538771 -2.654942
-0.018765824 -0.42561847 -2.6378961
1.831936 -0.64317203 -5.5427442
-0.24744301 0.39079851 -2.6752729
0.4713496 -1.040946 -2.5584021
-0.3786813 -0.69983119 -2.746453
-0.70999038 -0.87081861 -2.837204
1.915009 -0.64814472 -5.546051
-0.054127749 -0.44073749 -2.631
-0.1329563 -1.131762 -2.4357481
-0.03525928 -0.44050601 -2.636085
-0.1134696 -0.84965563 -2.6694069
-0.087649867 -0.71635407 -2.6986101
0.26403481 0.18718471 -2.7397461
0.56384897 -0.85345548 0.053809039
0.23544805 0.43041408 -2.6793051
0.1389886 0.5034619 -2.6538739
0.240045 -0.76897138 -2.71612
0.60052741 0.3052111 -2.83955
-0.56310213 -0.99549979 -2.4438219
-0.040791377 -0.37856841 -2.6165345
-0.095698208 0.59250671 -2.6871431
-0.2159615 -1.080127 -2.4183149
-0.74586833 0.5071646 -2.5695691
-0.069676563 -0.94012302 -2.5611401
0.10115004 -0.58471769 -2.7257657
0.88497192 0.06279368 -3.0153489
0.23580736 0.41089576 -2.6753063
0.58575499 0.021350199 -3.012315
-0.100981 -0.4843742 -2.6308579
-0.093981832 -0.48796701 -2.638284
-0.30258891 -0.85444218 -2.5971079
-0.089464098 -0.489768 -2.635272
-0.058528282 -0.39185244 -2.6150031
-0.28327209 -0.854325 -2.5900381
-0.2632584 0.4214406 -2.651041
0.60426128 -0.62326568 -2.861784
1.796304 -1.121483 -5.0499892
-0.08919739 -0.41314501 -2.6125054
-0.58405662 -0.22039101 -2.552238
0.47203401 0.1135978 -3.0411351
-0.058428679 -0.4100216 -2.6196411
-0.6403321 -0.069796108 -2.513098
-0.6283738 -0.061652131 -2.5156119
0.092502572 -0.44611049 -2.681637
-0.40967861 -0.68106508 -2.7216041
0.81182498 -0.027982431 -3.0841539
2.088954 -0.9807238 -5.1972399
-0.098427311 -0.43495995 -2.6154385
-0.04864902 -0.3486369 -2.5998771
-0.4078331 -0.52199543 -2.681313
-0.1095771 0.6201756 -2.6698151
-0.4708437 0.064127646 -2.5490601
-0.4264906 -0.70079547 -2.721591
0.094102539 -0.4638254 -2.684974
0.039376449 -0.81045848 -2.6442349
-0.13628779 -0.4591451 -2.6125989
-0.35459542 -0.18585239 -2.606184
0.062608957 -0.81126219 -2.641268
0.62271738 0.40733841 -2.7925389
-0.46570781 -1.054094 -2.4469891
-0.63378543 -0.74913728 -2.7223639
0.85082769 -0.04329608 -3.08741
0.52067947 -1.016849 -2.5879691
0.052492362 -0.57944262 -2.70767
-0.1150951 -0.3848601 -2.596519
-0.067704447 -0.72513741 -2.6775801
0.08122614 -0.32953349 -2.641448
-0.45458689 -0.6555627 -2.700706
-0.16133711 -0.95857477 -2.5477059
-0.1645861 -0.91024292 -2.596355
0.076641761 -0.4106814 -2.6647019
0.90819621 0.024480831 -3.0607841
-1.35016 -0.71355969 -0.30652869
-0.431532 -0.74048239 -2.7268
-0.1487311 0.35735849 -2.7733581
0.53327179 0.52527642 -2.753392
0.045833677 -0.43368849 -2.6627975
-0.4256908 -0.58969319 -2.688529
0.061722599 -0.43874705 -2.6675811
0.96389329 -0.54034472 -3.2516561
-0.26188871 0.5480572 -2.66415
-0.134821 -0.97025859 -2.545752
-0.1632553 0.33101121 -2.7744689
0.81695461 -0.01268864 -3.0658109
-0.66800088 -0.71241939 -2.7037179
-0.72830039 0.4745039 -2.5498619
0.33642209 -0.04625592 -2.9916561
-0.14375851 -0.35268819 -2.575315
0.55889529 -1.115465 -2.534075
0.97445136 0.2011033 -3.0742309
0.58296639 -1.115333 -2.536653
-0.60196823 -0.46907091 -2.649894
1.6018209 -0.885544 -5.2523799
0.1449035 0.01413822 0.3651911
-0.2191992 -1.260656 -2.3632419
-0.461806 -0.62234259 -2.6839354
-0.6987229 -0.18782941 -2.517988
-0.44548449 -0.96788549 -2.5209429
0.5373624 -1.13888 -2.530195
0.21393061 0.61557621 -2.5994079
-0.1640119 -0.37763241 -2.5783229
-0.41667771 -0.1981868 -2.580555
-0.25766641 0.50820428 -2.6607001
-0.40049699 -0.92048472 -2.574414
0.30298081 -1.210994 -2.48417
0.1878048 -0.93112451 -2.5908451
-0.011159003 -0.4911263 -2.6613662
0.073738478 -1.201172 -2.4149151
-0.020716259 -0.58789217 -2.6876659
-0.1586138 -0.309513 -2.551398
1.703159 -0.86830717 -5.3035841
-0.73146421 -0.1354306 -2.4902611
0.037889838 -0.33681059 -2.629796
-0.049562171 -0.6073187 -2.683404
0.1427263 0.01462794 0.31524089
2.116302 -1.239447 -4.9289188
0.85039455 0.017173521 -3.0471349
0.67771649 0.1264281 -2.838304
1.78377 -0.9071812 -5.2582421
-0.1826438 -0.9268648 -2.5739429
-0.29437619 0.46093291 -2.6652751
-0.26632851 0.46901521 -2.660378
0.55467719 -0.58892119 -2.8782029
0.0019829329 -0.35190681 -2.6209159
0.20686761 0.56272852 -2.7122059
-0.012927025 -0.44910675 -2.6479056
-0.47749579 -0.5903585 -2.6682839
-0.63667947 -0.36651921 -2.6033909
0.60402668 0.30691808 -2.845829
-0.080158778 -0.55973071 -2.660367
-0.090238281 0.59056008 -2.6962619
0.73844081 0.1391647 -3.0052669
0.099889688 -0.58458698 -2.733901
-0.70409608 0.59584367 -2.5575981
-0.62270099 -0.2908318 -2.5879791
0.4419274 0.001131434 -3.0203929
-0.1710508 0.48662639 -2.7137589
-0.44470489 -0.27158099 -2.5836761
-0.1372963 -0.79400438 -2.6591949
0.49382049 0.26959559 -2.8459101
-0.048930705 -0.48172283 -2.6448226
-0.3517372 -0.1022681 -2.660887
-0.63072193 -0.22265215 -2.5628734
0.1923907 0.3927384 -2.684875
0.60045338 0.35305569 -2.8233149
-0.47678196 -0.3876583 -2.6090555
-0.032382071 -0.411484 -2.6273229
-0.27494189 -1.126434 -2.4278491
-0.3867771 -0.68693519 -2.735939
0.60006928 -0.72714257 -2.770565
1.743692 -0.73673737 -5.4378252
-0.48456889 -0.3166683 -2.5832119
2.355442 -0.230186 -0.98359102
0.62206089 -0.81341189 -2.7979901
-0.13194735 -0.61564314 -2.6654794
-0.074732274 -0.43254134 -2.6224904
-0.1113517 -0.6164096 -2.668349
-0.57623053 -1.0505919 -2.456223
-0.1094469 0.62052292 -2.670382
-0.63507372 -0.083249412 -2.5220001
-0.58047712 0.1721348 -2.5831051
-0.17181429 -0.4538734 -2.6269169
-0.35008159 -1.081705 0.2111178
-0.1027296 -0.026251029 -2.760422
-0.49100319 -0.119238 -2.5962081
-0.61268628 -0.1740495 -2.5494981
-0.60832202 0.29795051 -2.4951229
1.661746 -0.97622138 -5.1893802
1.882692 -1.4473 -4.7036409
0.56567037 0.52442622 -2.715446
-0.043180808 -0.3604835 -2.6090231
-0.608998 -0.74441928 -2.7351229
0.0064245248 -0.029060701 -2.7634311
0.82003981 0.07920514 -3.0038381
0.093957178 -0.48990029 -2.696784
0.068569548 -0.57607597 -2.7133801
0.92034668 -0.71159011 -2.6537349
-0.34568399 -1.0670429 0.16351859
0.087684661 -0.57284188 -2.7194824
-0.061943751 -0.8973549 -2.6013789
-0.1055757 -0.47389287 -2.6263738
-0.079464771 -0.38430816 -2.6067355
0.38399959 0.39920321 -2.732491
0.4148716 -1.137828 -2.4960811
0.015791491 -0.55809557 -2.7698131
2.062356 -1.406157 -4.7540269
0.39392659 0.2181267 -2.77192
0.85121888 0.052330781 -3.0091009
-0.14013509 -0.4984253 -2.6222839
-0.48688859 -0.2823433 -2.5624931
1.7994829 -1.039661 -5.134275
-0.3464132 0.32072189 -2.663161
-0.42163041 0.3451255 -2.95034
-0.68063211 -0.2344088 -2.5439129
0.080227003 -0.43527761 -2.6738229
-0.40454039 -0.1144606 -2.642127
0.89528233 0.72187799 -2.9668851
1.015241 0.47231141 -3.0293159
0.65754008 0.3447814 -2.8069539
-0.2716527 -0.073110513 -2.6937461
1.941027 -0.94417822 0.072309121
-0.52441287 0.1460775 -2.512224
-0.65052629 -0.73115879 -2.714185
-0.34603909 -0.26863661 -2.618124
0.065834492 -0.3877295 -2.654794
0.9355824 0.53039008 -2.8849211
1.891204 -0.52456039 -5.6617341
0.27055359 -0.62822509 -2.837651
-0.14038379 -0.3742618 -2.582761
0.3168911 -0.91956168 -2.606962
-0.78206289 0.2118479 -2.547832
0.06279628 -0.31743991 -2.630971
-0.001612346 -0.58630848 -2.6932664
1.8816659 -1.373192 -4.7859998
0.01549083 -0.58398539 -2.697762
-0.12152435 -0.30220205 -2.5682616
-0.66840911 -0.59551239 -2.6712
-0.18414611 0.3118144 -2.8334529
0.69218242 0.2125643 -2.8264079
-0.42000511 -0.019875711 -2.6042149
0.06494648 -0.33863336 -2.6375914
-0.0043820059 -0.56748211 -2.741343
-0.46913719 -0.7515623 -2.719816
-0.2813637 0.465873 -2.670707
1.8270299 -0.82058752 -5.365284
1.938342 -0.31353751 -5.8457608
0.091106988 0.63156229 -2.707664
-0.2056516 0.46144679 -2.6793239
0.01241739 -0.4479194 -2.6544559
0.22702929 0.30891201 -2.664686
-0.04477746 0.39617819 -2.6923621
-0.41560709 -0.25949761 -2.5986409
-0.43553871 -0.34184831 -2.6143839
-0.085577883 -1.101755 -2.3896301
-0.24725869 -1.25989 -2.3568821
0.016978886 -0.37801409 -2.6352134
-0.689044 0.0091271531 -2.4686151
-0.4879159 -0.61124188 -2.670661
0.6682604 0.1730099 -2.829566
0.30872536 -0.055090189 -2.988272
-0.1645508 -0.15853859 -2.6968169
-0.1401429 -0.79581863 -2.663018
0.0070310272 -0.30679879 -2.615541
0.53726321 0.095529146 -3.0196819
0.81062448 0.04401933 -3.035604
0.036446959 -0.30684555 -2.6188786
0.83946258 0.048623368 -3.0310769
-0.69916248 -0.01127934 -2.4612501
0.083833411 -0.1739029 -2.643465
-0.70009291 0.57069248 -2.562989
-0.0054962561 -0.32566452 -2.6124849
0.0195082 -0.32504249 -2.6190879
0.1962266 -1.024856 -2.487045
0.1833353 -0.98599488 -2.5387061
-0.007343478 -0.41541979 -2.639003
0.020020859 -0.32543871 -2.619102
-0.062317304 -0.5952937 -2.678118
-0.51189649 0.2458857 -2.528841
0.8518073 0.02508837 -3.0380361
-0.72202629 0.4280872 -2.53282
-0.45282981 -0.2237522 -2.5720351
-0.270082 -0.67783523 -2.6271369
0.63847691 0.33362231 -2.8314409
-0.2671546 0.47114661 -2.655272
-0.01172358 -0.34130499 -2.614876
-0.61985409 -0.1723862 -2.55621
-0.37903309 -0.70061189 -2.7439671
0.63681883 -0.78993922 -2.7356141
-0.46457529 -0.33183089 -2.598
-0.065847591 -0.45745277 -2.6337066
0.1186134 -0.73484731 -2.7689991
0.1329781 1.260902 0.024898101
-0.13512529 -0.89026421 -2.6170039
-0.1127322 -0.85050207 -2.6629879
0.78233588 -0.06179161 -3.1069641
0.92156827 -1.060509 -2.8679221
-0.48037279 0.32692569 -2.918431
-0.3795366 -0.72546178 -2.741997
-0.69211382 -0.46935391 -2.617064
0.1013022 -0.57213271 -2.7247815
0.2319046 0.42805719 -2.677635
-0.67897278 -0.4643169 -2.618258
-0.077868409 -0.47084481 -2.6318171
-0.58843207 0.18046319 -2.529443
0.57172751 0.50693733 -2.729542
-0.1203446 0.49746609 -2.7049839
0.43647119 -1.133088 -2.504756
0.88755423 -1.977988 -0.92121601
0.60877419 -0.78391927 -2.7895319
0.5541566 -0.84165782 0.0061973552
0.61499143 0.36477929 -2.8194411
-0.3253065 -0.86236632 -2.5916791
-0.34768751 0.3248786 -2.673557
-0.6094529 -0.6999405 -2.7285869
-0.02152653 -0.318661 -2.5997641
0.25437024 -0.8382405 -2.6677511
-0.67560381 -0.83926523 -2.8108411
